# .PCD v0.7 - Point Cloud Data file format
VERSION 0.7
FIELDS x y z
SIZE 4 4 4
TYPE F F F
COUNT 1 1 1
WIDTH 1233
HEIGHT 1
VIEWPOINT 0 0 0 1 0 0 0
POINTS 1233
DATA ascii
1.720999956 -0.3285000026 -0.9629999995
1.805000067 -0.3410000205 -0.9930000305
1.877500057 -0.3400000036 -0.9609999657
1.947000027 -0.34799999 -0.9769999981
1.95599997 -0.3379999995 -0.9700000286
2.036999941 -0.3389999866 -0.9980000257
63.34349823 -0.315500021 -0.9654999971
1.324000001 -0.2599999905 -0.9539999962
1.370499969 -0.2594999969 -0.9735000134
1.442999959 -0.2980000079 -0.9990000129
1.476999998 -0.2935000062 -0.9765000343
1.5 -0.2860000134 -0.9959999919
63.34049988 -0.2714999914 -0.97299999
1.393000007 -0.248999998 -0.9829999804
63.35300064 -0.2220000029 -0.9679999948
1.452000022 -0.1529999971 -0.9520000219
1.529000044 -0.1879999936 -0.9660000205
1.55400002 -0.1550000012 -0.9990000129
63.33449936 -0.1335000098 -0.9860000014
63.32699966 -0.01600000076 -0.97299999
1.373999953 0.03799999878 -0.9509999752
63.33166504 0.03299999982 -0.9710000157
63.33566666 0.08566666394 -0.9623333812
63.32733154 0.1340000033 -0.9686667323
63.3326683 0.1713333279 -0.9623333812
63.3390007 0.2304999977 -0.9980000257
63.33300018 0.3249999881 -0.9789999723
1.324249983 0.3702499866 -0.9755000472
1.374384642 0.3714615405 -0.9726921916
1.421062589 0.3721249998 -0.9697501063
1.475333452 0.3737778068 -0.9747776389
1.525714278 0.3745714128 -0.9744285941
1.576294184 0.3751764297 -0.9734705687
1.624590755 0.3752727211 -0.9745454788
1.672785878 0.3759999871 -0.9755000472
1.714555502 0.3758888543 -0.9736111164
1.771625042 0.3761875033 -0.9754375219
1.825571299 0.3772857189 -0.9749999642
1.87192297 0.3776922822 -0.9760768414
1.926333427 0.3791666329 -0.9810833335
1.975124955 0.3791250288 -0.9768750072
2.017166615 0.3795000017 -0.9740000367
2.069999933 0.3794285953 -0.9790000319
2.129499912 0.3795000017 -0.9768333435
2.172399998 0.3809999824 -0.9717999697
2.217400074 0.380799979 -0.9713999629
2.272999763 0.3820000291 -0.9747999907
2.31928587 0.3820000291 -0.9748572111
2.38383317 0.3839999735 -0.9710000157
2.426833391 0.386166662 -0.9828333855
2.484266758 0.3847999871 -0.9754000306
2.545000076 0.3790000081 -0.9819999933
2.570200205 0.3842000067 -0.9869999886
2.662000179 0.3955000043 -0.9819999933
3.788555622 0.3933333158 -0.9762222767
3.808750153 0.3949999809 -0.9635000229
3.872000217 0.3905000091 -0.9789999723
4.098999977 0.3980000019 -0.9530000091
4.120999813 0.398999989 -0.9779999852
4.161499977 0.3984999955 -0.9615000486
4.429999828 0.398999989 -0.9599999785
4.526000023 0.398999989 -0.9509999752
63.34033203 0.3696666658 -0.967666626
2.803999901 0.4070000052 -0.9530000091
3.781383991 0.4305769205 -0.9759614468
3.800333261 0.4143333435 -0.9713333249
4.039000034 0.40200001 -0.9810000062
4.110000134 0.4029999971 -0.9679999948
4.169500351 0.4010000229 -0.97299999
4.265999794 0.4035000205 -0.9800000191
4.317749977 0.4022499919 -0.9860000014
4.379500389 0.4014999866 -0.9695000052
4.425499916 0.4050000012 -0.99150002
4.516666412 0.4036667049 -0.9846666455
4.596000195 0.4050000012 -0.9620000124
4.637000084 0.4059999883 -0.9739999771
4.672999859 0.40200001 -0.9840000272
4.699999809 0.40200001 -0.9570000172
4.770500183 0.4054999948 -0.9674999714
4.824999809 0.4065000117 -0.9875000119
4.883999825 0.4060000181 -0.9595000148
4.933000088 0.4095000029 -0.9804999828
4.977666855 0.4083333313 -0.9793333411
5.05700016 0.4079999924 -0.9929999709
5.113666534 0.4093333483 -0.967666626
5.173999786 0.4129999876 -0.9850000143
5.223999977 0.4099999964 -0.9869999886
5.275000095 0.4119999707 -0.9730000496
5.308000088 0.4129999876 -0.9670000076
5.441999912 0.4110000134 -0.9860000014
5.473500252 0.4160000086 -0.9809999466
5.538000107 0.4154999852 -0.9674999714
5.580999851 0.4129999876 -0.9779999852
5.62650013 0.4154999852 -0.9750000238
5.65899992 0.4169999957 -0.9649999738
5.718500137 0.4154999852 -0.9720000029
5.765000343 0.4189999998 -0.9839999676
5.868000031 0.4194999933 -0.9585000277
5.936999798 0.4219999909 -0.9840000272
5.973999977 0.4180000126 -0.9779999852
6.00150013 0.4180000126 -0.9765000343
6.07349968 0.4204999804 -0.9895000458
6.13049984 0.4229999781 -0.9680000544
6.230999947 0.425999999 -0.9909999967
6.327000141 0.4235000014 -0.9714999795
6.377000332 0.424333334 -0.9723333716
6.417500019 0.4264999926 -0.9830000401
6.539999962 0.425999999 -0.9620000124
6.585666656 0.4256666601 -0.9556667209
6.713666439 0.4276666641 -0.9719999433
6.84499979 0.4269999862 -0.9679999948
6.920000076 0.4320000112 -0.9900000095
6.949999809 0.4280000031 -0.9789999723
7.07349968 0.4309999943 -0.9750000238
7.122000217 0.4339999855 -0.9700000286
7.433000088 0.4329999983 -0.9679999948
7.461999893 0.4359999895 -0.9710000157
7.848999977 0.4370000064 -0.9570000172
7.934999943 0.4429999888 -0.9689999819
7.953999996 0.4429999888 -0.9829999804
8.071000099 0.4399999976 -0.9589999914
8.187999725 0.4410000145 -0.9610000253
8.305000305 0.4399999976 -0.9700000286
8.38599968 0.4469999969 -0.9940000176
8.43500042 0.4449999928 -0.9879999757
8.484999657 0.4429999888 -0.9829999804
8.501000404 0.4440000057 -0.9800000191
8.565999985 0.4480000138 -0.9929999709
10.26500034 0.4140000045 -0.9980000257
63.34899902 0.423999995 -0.9909999967
3.486999989 0.4692499936 -0.9682499766
3.519166946 0.4774999917 -0.9756667018
3.553999901 0.4869999886 -0.9850000143
3.659500122 0.4830000103 -0.9639999866
3.731500149 0.488499999 -0.9570000172
3.768695354 0.4726521969 -0.9783912301
8.788000107 0.4499999881 -0.9819999933
9.045000076 0.4499999881 -1
9.225999832 0.4530000091 -0.9819999933
9.293000221 0.4569999874 -0.976000011
9.347000122 0.4560000002 -0.9789999723
9.548999786 0.4550000131 -0.9739999771
9.633000374 0.4560000002 -0.9599999785
9.765999794 0.4589999914 -0.9599999785
10.48999977 0.4544999897 -0.9909999967
10.50599957 0.4569999874 -0.9559999704
10.61600018 0.4679999948 -0.9909999967
11.68200016 0.4799999893 -0.9670000076
11.81900024 0.4790000021 -0.9570000172
12.15950012 0.4810000062 -0.9715000391
12.43500042 0.4850000143 -0.9539999962
12.48200035 0.4860000014 -0.9840000272
13.42350006 0.4940000176 -0.9754999876
13.68599987 0.4959999919 -0.9720000029
13.73099995 0.4970000088 -0.9689999819
63.33549881 0.4620000124 -0.9689999819
3.575999975 0.5139999986 -0.9990000129
3.739285946 0.5217143297 -0.9798571467
3.754399776 0.5225999951 -0.9713999629
14.73400021 0.5159999728 -0.9610000253
14.75300026 0.5180000067 -0.9850000143
14.8739996 0.5040000081 -0.9959999919
15.0340004 0.5070000291 -0.9890000224
15.21399975 0.5090000033 -0.996999979
15.27000046 0.5099999905 -1
17.57099915 0.5370000005 -1
17.6420002 0.5249999762 -0.9909999967
19.82033348 0.5386666656 -0.9749999642
21.81100082 0.5479999781 -0.9620000124
32.625 0.5329999924 -0.9620000124
32.65399933 0.5249999762 -0.9520000219
63.3730011 0.5040000081 -0.9689999819
19.82799911 0.5729999542 -0.9919999838
22.25399971 0.5699999928 -0.9810000062
22.31200027 0.5770000219 -0.9909999967
22.41600037 0.5680000186 -0.9589999914
32.68499756 0.5929999948 -0.961499989
32.76399994 0.5559999943 -0.9580000043
38.52799988 0.5619999766 -0.976000011
38.57099915 0.5699999928 -0.9909999967
63.38700104 0.5580000281 -0.9629999995
63.41899872 0.5529999733 -0.9750000238
29.66799927 0.6380000114 -0.9800000191
31.5739994 0.6359999776 -0.9840000272
32.68149948 0.6215000153 -0.9774999619
63.49300003 0.6269999743 -0.97299999
28.43400002 0.6769999862 -0.9803333282
28.9659996 0.6539999843 -0.9620000124
29.8220005 0.6600000262 -0.9649999738
31.45400047 0.6679999828 -0.9829999804
63.36399841 0.6610000134 -0.9580000043
52.19400024 0.7440000176 -0.9589999914
52.25099945 0.7440000176 -0.9629999995
52.24599838 0.7639999986 -0.9940000176
63.4090004 0.82099998 -0.996999979
63.3429985 0.8849999905 -0.9750000238
8.201999664 -5.803999901 -0.9269999862
8.202000618 -5.773799896 -0.9196000099
8.196000099 -5.725500107 -0.9290000796
8.201999664 -5.706999779 -0.9240000248
8.196166992 -5.677166462 -0.9268333912
8.190600395 -5.625 -0.9223999977
8.188111305 -5.572777748 -0.9168888927
8.186167717 -5.525333405 -0.931499958
8.187428474 -5.477857113 -0.9242857099
8.18599987 -5.429400444 -0.9256000519
8.184666634 -5.387666702 -0.9223333001
8.18200016 -5.324999809 -0.9127500057
8.184000015 -5.282999992 -0.9156000018
8.182999611 -5.22300005 -0.9340000153
8.183833122 -5.173999786 -0.9246666431
8.182999611 -5.138999939 -0.9480000138
8.184666634 -5.08433342 -0.9293333888
8.176333427 -5.027333736 -0.9346666336
8.244000435 -5.019999981 -0.9380000234
8.190999985 -4.980000019 -0.9039999843
8.201999664 -4.984333515 -0.9146666527
8.195332527 -4.934666157 -0.9293332696
8.206000328 -4.921000004 -0.9350000024
8.191249847 -4.886749744 -0.930249989
8.184000015 -4.831999779 -0.9499999881
8.162500381 -4.770750046 -0.9162499905
8.161334038 -4.720666409 -0.9169999957
8.169000626 -4.676499844 -0.9375
8.167599678 -4.633200169 -0.9265999794
8.166500092 -4.588000298 -0.9214999676
8.164570808 -4.530142784 -0.9328571558
8.166000366 -4.488500118 -0.9309999943
8.163999557 -4.418000221 -0.9079999924
8.167749405 -4.366999626 -0.9347499609
8.163499832 -4.330250263 -0.9112499952
8.149000168 -4.267000198 -0.92900002
8.164500237 -4.264999866 -0.9240000248
8.158800125 -4.214799881 -0.935000062
8.162333488 -4.178666592 -0.9210000038
8.160500526 -4.126999855 -0.9191667438
8.156999588 -4.072000027 -0.92900002
8.147000313 -4.019000053 -0.9060000181
8.157999992 -4.012000084 -0.9470000267
8.140999794 -3.953999996 -0.9190000296
8.155600548 -3.965000153 -0.9248000383
8.157999992 -3.930000067 -0.9129999876
8.149000168 -3.894999981 -0.9319999814
8.154999733 -3.890000105 -0.9219999909
8.141599655 -3.818400145 -0.9357999563
8.143249512 -3.77300024 -0.9312499762
8.141666412 -3.727666616 -0.9140000343
8.140599251 -3.665599823 -0.9348000288
8.144000053 -3.607999802 -0.9325000048
8.151000023 -3.617000103 -0.9010000229
8.154000282 -3.559499979 -0.9179999828
8.146499634 -3.538000107 -0.9409999847
8.152000427 -3.515000105 -0.9440000057
8.147000313 -3.486000061 -0.9210000038
8.154666901 -3.460000038 -0.9230000377
8.145999908 -3.415500164 -0.9029999971
8.154000282 -3.424999952 -0.9319999814
8.142999649 -3.368999958 -0.91049999
8.155500412 -3.374499798 -0.931499958
8.144667625 -3.315666914 -0.9240000248
8.156999588 -3.325000048 -0.9129999876
8.147999763 -3.296000004 -0.9219999909
8.152200699 -3.281000137 -0.9279999733
8.144500732 -3.220999956 -0.9440000057
8.152000427 -3.226999998 -0.9079999924
8.144332886 -3.171000242 -0.921333313
8.151000023 -3.17050004 -0.9269999862
8.145999908 -3.123500109 -0.9144999981
8.152999878 -3.127000093 -0.9480000138
8.146333694 -3.062666655 -0.9200000167
8.152000427 -3.075999975 -0.9470000267
8.143500328 -3.013500214 -0.9139999747
8.145000458 -2.924499989 -0.9235000014
8.156000137 -2.930999994 -0.9240000248
8.146999359 -2.87650013 -0.9169999957
8.149000168 -2.815999985 -0.9200000167
8.151499748 -2.834500074 -0.9040000439
8.144000053 -2.75733304 -0.9193332791
8.151000023 -2.717999935 -0.925999999
8.145500183 -2.694499969 -0.9154999852
8.148000717 -2.632499933 -0.9154999852
8.151000023 -2.605000019 -0.9430000186
8.142000198 -2.565999985 -0.9029999971
8.149999619 -2.553999901 -0.9070000052
8.142999649 -2.440000057 -0.9480000138
8.149999619 -2.391000032 -0.9279999733
8.645000458 -2.22300005 -0.9179999828
8.800000191 -2.223999977 -0.9340000153
8.871500015 -2.222000122 -0.9154999852
8.963999748 -2.221999884 -0.9049999714
9.127333641 -2.219666719 -0.9219999909
9.163999557 -2.214999914 -0.9369999766
9.371333122 -2.213666677 -0.9276666641
9.417499542 -2.21449995 -0.9359999895
9.593000412 -2.211999893 -0.9380000234
9.633999825 -2.217999935 -0.9110000134
9.672332764 -2.213999987 -0.9393333793
9.793000221 -2.209000111 -0.9359999895
9.855999947 -2.207999945 -0.9269999862
9.927499771 -2.210000038 -0.9185000062
10.02149963 -2.207499981 -0.9060000181
10.13099957 -2.204999924 -0.9179999828
10.29300022 -2.203000069 -0.949000001
11.32999992 -2.200999975 -0.9039999843
17.42399979 -2.223999977 -0.9309999943
17.69499969 -2.224999905 -0.9010000229
10.30799961 -2.196000099 -0.9139999747
10.37100029 -2.190000057 -0.9029999971
10.51799965 -2.193500042 -0.9264999628
10.64599991 -2.193000078 -0.9269999862
10.6590004 -2.196000099 -0.9169999957
10.70400047 -2.190000057 -0.9390000105
10.77000046 -2.190000057 -0.9010000229
11.02466679 -2.189999819 -0.9346666336
11.07649994 -2.190999985 -0.9269999862
11.38599968 -2.190999985 -0.9250000119
11.41399956 -2.193000078 -0.9139999747
11.47000027 -2.188999891 -0.9340000153
11.51799965 -2.194000006 -0.9359999895
11.60200024 -2.194000006 -0.9190000296
11.73499966 -2.194999933 -0.9210000038
11.78933239 -2.191666603 -0.9026666284
11.9289999 -2.187000036 -0.94599998
12.02400017 -2.19299984 -0.9255000353
12.18599987 -2.191999912 -0.9390000105
12.22799969 -2.189499855 -0.9105000496
12.36499977 -2.186000109 -0.9409999847
12.46299934 -2.1875 -0.9340000153
12.61299992 -2.176000118 -0.9110000134
12.68099976 -2.178999901 -0.9190000296
12.76399994 -2.171999931 -0.9329999685
13 -2.171999931 -0.9300000072
13.10400009 -2.171999931 -0.9150000215
13.16749954 -2.172500134 -0.9225000143
13.23250008 -2.166999817 -0.9240000248
13.31000042 -2.173000097 -0.9049999714
13.47000027 -2.170000076 -0.9089999795
13.64000034 -2.16899991 -0.9089999795
13.69099998 -2.177000046 -0.9219999909
13.7489996 -2.16899991 -0.9300000072
13.76350021 -2.172500134 -0.9264999628
13.80000019 -2.16899991 -0.925999999
13.95800018 -2.180000067 -0.92900002
15.40999985 -2.160000086 -0.9029999971
15.49800014 -2.15199995 -0.9129999876
15.51399994 -2.156499863 -0.9319999814
15.60900021 -2.157999992 -0.9369999766
15.78600025 -2.154000044 -0.949000001
17.69250107 -2.186500072 -0.9375
17.70349884 -2.175499916 -0.9120000005
14.08450031 -2.146999836 -0.9140000343
14.1079998 -2.148999929 -0.9139999747
14.18599987 -2.145999908 -0.9214999676
14.20400047 -2.148000002 -0.9409999847
14.26900005 -2.148000002 -0.9169999957
14.40600014 -2.150000095 -0.9359999895
14.68999958 -2.135999918 -0.9169999957
14.70800018 -2.139999866 -0.9120000005
14.79199982 -2.130000114 -0.9100000262
14.85200024 -2.138999939 -0.949000001
15.51299953 -2.150000095 -0.9380000234
15.65299988 -2.148999929 -0.9210000038
15.98200035 -2.132499933 -0.940500021
16.01166534 -2.12166667 -0.9196667075
16.42099953 -2.142666817 -0.9210000038
17.73200035 -2.124000072 -0.9039999843
17.94599915 -2.125 -0.9079999924
17.96500015 -2.131000042 -0.9160000086
18.08300018 -2.125999928 -0.9164999723
18.23200035 -2.12349987 -0.9204999804
18.74799919 -2.124000072 -0.9229999781
18.93199921 -2.113999844 -0.9449999928
19.06999969 -2.111000061 -0.9329999685
19.28300095 -2.117000103 -0.9279999733
19.69599915 -2.112999916 -0.9340000153
19.88299942 -2.108999968 -0.9470000267
20.05599976 -2.101000071 -0.9010000229
20.16450119 -2.10649991 -0.9154999852
20.20800018 -2.101999998 -0.9480000138
20.43899918 -2.105999947 -0.9470000267
20.75799942 -2.102999926 -0.9060000181
20.81699944 -2.101000071 -0.9380000234
20.87599945 -2.101000071 -0.949000001
20.84700012 -2.092999935 -0.9240000248
21.47599983 -2.088999987 -0.9269999862
21.95299911 -2.085000038 -0.9279999733
22.0890007 -2.088500023 -0.9365000129
22.14100075 -2.088999987 -0.9190000296
22.29599953 -2.085000038 -0.949000001
22.77799988 -2.072999954 -0.9150000215
23.08499908 -2.073999882 -0.9210000038
23.50399971 -2.078000069 -0.9089999795
23.56800079 -2.066999912 -0.9129999876
23.62700081 -2.075999975 -0.9110000134
28.79800034 -2.058000088 -0.9480000138
28.8010006 -2.063999891 -0.9229999781
23.81299973 -2.003999949 -0.9139999747
26.27099991 -2.036999941 -0.9440000057
26.90999985 -2.03399992 -0.9060000181
27.36100006 -2.040999889 -0.9190000296
27.43899918 -2.039999962 -0.9160000086
27.47999954 -2.036000013 -0.90200001
28.90099907 -2.020999908 -0.9330000281
29.18799973 -2.019999981 -0.9070000052
30.80599976 -2.019000053 -0.9419999719
23.78899956 -1.988999963 -0.9430000186
23.81150055 -1.991999984 -0.9340000153
24.68400002 -1.985000014 -0.9169999957
24.81200027 -1.967000008 -0.932000041
25.52000046 -1.993000031 -0.90200001
33.36100006 -1.968000054 -0.9179999828
31.94050026 -1.931999922 -0.9265000224
31.99200058 -1.924999952 -0.9279999733
32.08399963 -1.932000041 -0.9100000262
32.3390007 -1.940999985 -0.9120000005
33.63199997 -1.914000034 -0.9430000186
33.74700165 -1.938499928 -0.9359999895
33.76900101 -1.945000052 -0.9120000005
37.83599854 -1.902999997 -0.9219999909
38.32300186 -1.909999967 -0.9340000153
39.72499847 -1.911000013 -0.9359999895
41.45000076 -1.904999971 -0.9309999943
33.64699936 -1.879999995 -0.9200000167
34.62966537 -1.863999963 -0.918333292
37.14899826 -1.883999944 -0.9240000248
37.3769989 -1.889000058 -0.9120000005
40.03099823 -1.896000028 -0.9240000248
40.50699997 -1.889000058 -0.9359999895
42.43000031 -1.875 -0.9139999747
33.63199997 -1.833999991 -0.9010000229
44.42200089 -1.845000029 -0.9340000153
45.47800064 -1.850000024 -0.9319999814
46.48600006 -1.83099997 -0.94599998
46.77000046 -1.828999996 -0.9369999766
46.98600006 -1.812000036 -0.9499999881
47.11399841 -1.822999954 -0.9060000181
53.38399887 -1.779000044 -0.9179999828
53.71500015 -1.758000016 -0.9070000052
47.35200119 -1.722000003 -0.9250000119
47.88400269 -1.711500049 -0.9264999628
54.01200104 -1.748999953 -0.9330000281
56.31900024 -1.736999989 -0.949000001
57.09000015 -1.730000019 -0.9229999781
47.87900162 -1.68599999 -0.9300000072
59.16600037 -1.687000036 -0.9120000005
60.25500107 -1.680999994 -0.9150000215
60.52600098 -1.654000044 -0.9120000005
62.70600128 -1.652999997 -0.9150000215
63.16699982 -1.521000028 -0.9139999747
63.23799896 -1.48149991 -0.9179999828
63.33599854 -1.391000032 -0.9240000248
63.37200165 -1.327000022 -0.9120000005
63.35699844 -1.263000011 -0.9409999847
63.34799957 -1.202999949 -0.9079999924
63.36100006 -1.228000045 -0.9319999814
63.34600067 -1.15199995 -0.9240000248
63.35900116 -1.149000049 -0.9139999747
63.35300064 -1.075500011 -0.9220000505
1.978000045 -0.8820000291 -0.9240000248
63.33750153 -0.880499959 -0.9340000153
63.35599899 -0.8920000196 -0.9100000262
1.567999959 -0.80400002 -0.9060000181
1.847000003 -0.8100000024 -0.9120000005
1.893000007 -0.8019999862 -0.9340000153
2.341500044 -0.8085000515 -0.9175000191
1.538499951 -0.7710000277 -0.9060000181
1.597000003 -0.7559999824 -0.9129999876
1.648000002 -0.7710000277 -0.9470000267
1.875499964 -0.7970000505 -0.91049999
63.35300064 -0.7609999776 -0.9120000005
1.722000003 -0.7080000043 -0.9229999781
1.838999987 -0.7039999962 -0.9440000057
1.858166814 -0.7061666846 -0.9168334007
1.975333333 -0.7183333039 -0.9333333969
2.141499996 -0.7215000391 -0.9325000048
63.3429985 -0.7170000076 -0.9160000086
1.61500001 -0.6949999928 -0.9470000267
1.689499974 -0.6809999943 -0.9114999771
1.730000019 -0.6970000267 -0.9150000215
1.826999903 -0.6712856889 -0.9262856841
1.866000056 -0.698333323 -0.9316666722
1.936500072 -0.6664999723 -0.9285000563
2.077000141 -0.6614999771 -0.9359999895
2.282999992 -0.6549999714 -0.9430000186
63.33774567 -0.680249989 -0.9235000014
63.34999847 -0.65200001 -0.9350000024
1.495000005 -0.6389999986 -0.9190000296
1.534499884 -0.6289999485 -0.9264999628
1.644999981 -0.6079999804 -0.9079999924
1.66049993 -0.6352499723 -0.905000031
1.782250047 -0.6187499762 -0.9089999795
1.818571329 -0.6279999018 -0.9268570542
1.913999915 -0.6209999919 -0.9279999733
2.043499947 -0.6194999814 -0.9054999948
2.268499851 -0.628000021 -0.9269999862
2.323153496 -0.6219230294 -0.9265384078
63.34400177 -0.6179999709 -0.9169999957
1.485666752 -0.5659999847 -0.9179999828
1.512500048 -0.5825000405 -0.9213750362
1.639999986 -0.5793999434 -0.9152000546
1.651000023 -0.55400002 -0.9279999733
1.789999962 -0.5766000152 -0.9084000587
1.807999969 -0.5929999948 -0.949000001
1.907333374 -0.5750000477 -0.9210000038
1.966583371 -0.5687499642 -0.9250833392
2.238333464 -0.5769999623 -0.9250000119
2.26699996 -0.5519999862 -0.9340000153
63.32400131 -0.5899999738 -0.9110000134
1.391000032 -0.5120000243 -0.94599998
1.476999998 -0.5345000029 -0.9079999924
1.512000084 -0.5299999714 -0.9174999595
1.669999957 -0.5460000038 -0.9415000081
1.711999893 -0.5232499838 -0.9329999685
1.797000051 -0.5460000038 -0.925999999
1.811333299 -0.5326666832 -0.9196667075
1.931250095 -0.5292500257 -0.9357500076
1.976600051 -0.5426000357 -0.9270000458
2.224666595 -0.5163333416 -0.9330000281
63.35599899 -0.5410000086 -0.9249999523
1.378999949 -0.4787999988 -0.9394000173
1.513199925 -0.4808000028 -0.9250000119
1.686500072 -0.4659999907 -0.9462500215
1.72025013 -0.4759999812 -0.9305000305
1.835666656 -0.4613333046 -0.926666677
1.850000024 -0.4900000095 -0.9470000267
1.931499958 -0.4779999852 -0.9264999628
1.958999991 -0.4539999962 -0.9409999847
2.146500111 -0.4530000091 -0.931499958
2.155333519 -0.4526666701 -0.9373333454
2.234333277 -0.478000015 -0.924333334
63.3390007 -0.4865000248 -0.9169999957
1.375222206 -0.4211111069 -0.9292222261
1.527999997 -0.4246666431 -0.915999949
1.714666724 -0.4396666586 -0.934499979
1.845499992 -0.4325000048 -0.9140000343
1.872666717 -0.4186666906 -0.9093332887
1.921833158 -0.424333334 -0.9255000949
1.957999825 -0.4173333347 -0.9275000095
2.111999989 -0.4235000014 -0.9342499971
2.170615196 -0.4343076944 -0.9280000329
2.220400095 -0.4343999922 -0.9248000383
63.33300018 -0.4099999964 -0.92900002
1.382500052 -0.3745000064 -0.9095000029
1.408799887 -0.3754000068 -0.9417999983
1.545000076 -0.3939999938 -0.9350000024
1.576499939 -0.3672499955 -0.9235000014
1.601999998 -0.3740000129 -0.9470000267
1.741999984 -0.3744000196 -0.9394000173
1.887799978 -0.3791999817 -0.9273999929
1.949000001 -0.3889999986 -0.9039999843
1.955250025 -0.3872500062 -0.9377499819
2.134666681 -0.3836666644 -0.9113333821
2.222499847 -0.3799999952 -0.9099999666
2.270999908 -0.3869999945 -0.9039999843
2.336999893 -0.3779999912 -0.9100000262
63.34799957 -0.351000011 -0.9110000134
1.414428592 -0.3271428645 -0.9322856665
1.458999991 -0.3030000031 -0.9120000005
1.595999956 -0.3470000029 -0.9010000229
1.613999963 -0.3409999907 -0.9213333726
1.671999931 -0.3324999809 -0.9350000024
1.817000031 -0.3353333473 -0.9336667061
1.889999986 -0.3449999988 -0.9089999795
1.968999982 -0.3366666734 -0.9263333678
2.194000006 -0.34799999 -0.9449999928
2.469500065 -0.3055000007 -0.9060000181
2.551000118 -0.3449999988 -0.9190000296
63.33299637 -0.325666666 -0.9306666851
1.328999996 -0.2632499933 -0.9275000095
1.376000047 -0.2549999952 -0.9039999843
1.409000039 -0.2549999952 -0.9340000153
1.485000014 -0.2969999909 -0.9335000515
1.503000021 -0.2879999876 -0.949000001
1.639000058 -0.2060000002 -0.9169999957
63.33499908 -0.2430000007 -0.9114999771
1.429999948 -0.1710000038 -0.9214999676
2.238500118 -0.1590000093 -0.9114999771
2.279999971 -0.175999999 -0.9010000229
2.319000006 -0.1889999956 -0.9319999814
63.33599854 -0.172999993 -0.9499999881
1.372999907 -0.1105000004 -0.9084999561
1.417000055 -0.1299999952 -0.9255000353
63.33250046 -0.124499999 -0.9294999838
63.34999847 -0.1360000074 -0.9010000229
63.33650208 -0.02149999887 -0.9375
1.355999947 0.04199999943 -0.9300000072
63.33179855 0.02059999853 -0.9248000383
63.33799744 0.1265000105 -0.9305000305
63.33633423 0.1696666628 -0.924333334
63.34300232 0.2304999977 -0.9294999838
63.33824921 0.2682499886 -0.9272499681
63.34000015 0.3219999969 -0.9399999976
63.35599899 0.3449999988 -0.9010000229
1.272250056 0.3680000007 -0.9340000153
1.32858336 0.3690833151 -0.9299166203
1.372823477 0.3697058856 -0.9202353358
1.425523639 0.3705237806 -0.9239047766
1.474421024 0.3716316223 -0.9252631664
1.526818156 0.3727273047 -0.9290908575
1.579357147 0.3729285598 -0.9244285822
1.626583457 0.373083353 -0.926666677
1.670428634 0.3737142682 -0.9281428456
1.722076893 0.3743076622 -0.9250000715
1.773461699 0.375384599 -0.9243846536
1.82438457 0.3756923378 -0.9259232283
1.87624979 0.3766666353 -0.927750051
1.925545216 0.3765454292 -0.9274545312
1.978199959 0.3763000071 -0.9237999916
2.024400234 0.3770000041 -0.9273999929
2.069857121 0.3770000041 -0.9194285274
2.121000051 0.3765000105 -0.9295000434
2.181166649 0.3783333302 -0.9225000739
2.221857071 0.3795714676 -0.9300000072
2.280125141 0.3799999952 -0.9257500768
2.317000151 0.3819999993 -0.9223333001
2.374833107 0.3823333681 -0.9354999661
2.423000097 0.3832726777 -0.923818171
2.481769085 0.3805384338 -0.9229230881
2.502666712 0.3783333302 -0.9139999747
2.559999943 0.3799999952 -0.9110000134
2.691999912 0.3919999897 -0.9219999909
3.78922224 0.3911111057 -0.9267778397
3.822500229 0.3898333609 -0.9196667075
3.864500046 0.388500005 -0.9359999895
3.999000072 0.3980000019 -0.9279999733
4.004000187 0.3930000067 -0.9150000215
4.092000008 0.3959999979 -0.9089999795
4.230999947 0.3980000019 -0.9419999719
4.256500244 0.3975000083 -0.9149999619
4.30700016 0.3980000019 -0.9309999943
4.467499733 0.3980000019 -0.9335000515
4.534999847 0.3980000019 -0.9039999843
4.584000111 0.398999989 -0.9200000167
63.33566666 0.3813333511 -0.9306666255
63.35300064 0.3729999959 -0.9480000138
3.781730413 0.426346153 -0.9249616265
3.802999973 0.4189999998 -0.9089999795
4.079999924 0.400000006 -0.9179999828
4.157000065 0.4009999931 -0.9049999714
4.287666798 0.4020000398 -0.9373333454
4.331500053 0.4014999866 -0.9334999919
4.361000061 0.4009999931 -0.9160000086
4.434000015 0.40200001 -0.9309999943
4.484000206 0.40200001 -0.9240000248
4.55850029 0.40200001 -0.9085000157
4.684000015 0.4033333361 -0.9256666303
4.791999817 0.4029999971 -0.9185000062
4.829500198 0.4014999866 -0.9185000062
4.929666519 0.407000035 -0.9376666546
4.97300005 0.4050000012 -0.9090000391
5.040499687 0.4079999924 -0.9279999733
5.070000172 0.4040000141 -0.9240000248
5.134500027 0.4070000052 -0.913500011
5.189499855 0.4085000157 -0.9219999909
5.234499931 0.4085000157 -0.9089999795
5.277999878 0.4079999924 -0.925999999
5.381000042 0.4110000134 -0.9485000372
5.443999767 0.4090000093 -0.9079999924
5.514999866 0.4120000005 -0.9350000024
5.620333195 0.4140000045 -0.9316666722
5.704999924 0.4160000086 -0.9120000005
5.758999825 0.4120000005 -0.9060000181
5.827000141 0.4154999852 -0.9219999909
5.859000206 0.4140000045 -0.9250000119
5.974999905 0.4199999869 -0.9319999814
6.03000021 0.4160000086 -0.9240000248
6.135499954 0.4194999933 -0.9120000005
6.163000107 0.4180000126 -0.9309999943
6.309000015 0.4189999998 -0.9300000072
6.440500259 0.4225000143 -0.9279999733
6.676000118 0.4269999862 -0.9350000024
6.824749947 0.4275000095 -0.9252499938
6.867000103 0.4300000072 -0.9499999881
7.09100008 0.4329999983 -0.9319999814
7.142000198 0.4280000031 -0.9229999781
7.181499958 0.4309999943 -0.92900002
7.231999874 0.4289999902 -0.925999999
7.326999664 0.4329999983 -0.9287499785
7.359000206 0.4300000072 -0.9039999843
7.560500145 0.4370000064 -0.9340000153
7.69299984 0.4375 -0.9095000029
7.708000183 0.4350000024 -0.9480000138
7.77699995 0.4379999936 -0.9079999924
7.819666386 0.4370000064 -0.9176666737
7.968999863 0.4420000017 -0.9419999719
8.168999672 0.4390000105 -0.9300000072
8.208999634 0.4410000145 -0.9210000038
8.38599968 0.4429999888 -0.9359999895
8.432999611 0.4429999888 -0.9330000281
8.470000267 0.4420000017 -0.90200001
8.593999863 0.4420000017 -0.9279999733
8.619999886 0.4440000057 -0.9449999928
8.843999863 0.4480000138 -0.9369999766
9.216499329 0.449000001 -0.9185000062
10.29450035 0.4375 -0.9204999804
10.32699966 0.4370000064 -0.9120000005
10.4989996 0.4480000138 -0.9110000134
63.33349991 0.4250000119 -0.9194999933
3.326999903 0.4720000029 -0.9060000181
3.482857227 0.4698571563 -0.9279999733
3.52033329 0.4709999859 -0.9203333855
3.575500011 0.4860000014 -0.9340000153
3.62833333 0.4886666536 -0.9216666222
3.679250002 0.4814999998 -0.9154999852
3.743999958 0.4900000095 -0.9279999733
3.771654606 0.4684827328 -0.9279999137
8.963000298 0.4499999881 -0.9399999976
9.43200016 0.4550000131 -0.9480000138
9.539999962 0.4560000002 -0.949000001
9.593000412 0.4539999962 -0.9309999943
9.621999741 0.4569999874 -0.94599998
9.779000282 0.4560000002 -0.9269999862
9.956999779 0.4550000131 -0.9029999971
10.03750038 0.4569999874 -0.9375
10.33899975 0.4629999995 -0.949000001
10.35599995 0.4639999866 -0.949000001
10.48499966 0.4629999995 -0.9120000005
10.68999958 0.4580000043 -0.9039999843
10.96800041 0.4539999962 -0.9319999814
11.06999969 0.4550000131 -0.9079999924
11.18900013 0.4600000083 -0.9049999714
12.00699997 0.4810000062 -0.9409999847
12.11900043 0.4810000062 -0.9300000072
12.16699982 0.4810000062 -0.9229999781
12.45600033 0.4830000103 -0.9440000057
13.07800007 0.4909999967 -0.9390000105
13.42500019 0.4905000031 -0.9275000095
13.82600021 0.4979999959 -0.9359999895
63.34500122 0.4860000014 -0.9300000072
3.506999969 0.5 -0.90200001
3.697999954 0.5180000067 -0.9070000052
3.742833138 0.5205000043 -0.923500061
3.756999969 0.5182499886 -0.9210000038
14.17700005 0.5019999743 -0.9079999924
17.6269989 0.5170000196 -0.9179999828
19.85400009 0.5339999795 -0.9100000262
19.83399963 0.5609999895 -0.9269999862
19.86400032 0.5575000048 -0.9305000305
22.00799942 0.5799999833 -0.9340000153
22.34900093 0.574000001 -0.9200000167
22.3939991 0.5770000219 -0.9190000296
22.43400002 0.5749999881 -0.9480000138
32.68500137 0.5939999819 -0.9300000072
32.71500015 0.5720000267 -0.9269999862
32.75299835 0.5600000024 -0.9190000296
38.62200165 0.5760000348 -0.9363333583
63.40399933 0.5839999914 -0.9039999843
28.45499992 0.6470000148 -0.9120000005
29.05400085 0.6470000148 -0.90200001
31.61199951 0.6299999952 -0.9369999766
31.93300056 0.6269999743 -0.9029999971
32.01100159 0.6359999776 -0.9139999747
32.09799957 0.6309999824 -0.9449999928
32.68200302 0.6143333912 -0.9369999766
63.55400085 0.6470000148 -0.9340000153
28.42499924 0.6740000248 -0.9160000086
29.13100052 0.6529999971 -0.9089999795
29.61800003 0.6539999843 -0.949000001
30.4829998 0.6570000052 -0.9369999766
30.63299942 0.6570000052 -0.9409999847
31.48800087 0.6620000005 -0.9039999843
44.55599976 0.6690000296 -0.9110000134
63.34700012 0.6869999766 -0.9160000086
63.35499954 0.6800000072 -0.9010000229
63.44100189 0.6560000181 -0.9390000105
28.43899918 0.7009999752 -0.9039999843
63.3390007 0.7254999876 -0.9125000238
63.35200119 0.7450000048 -0.9010000229
63.35700226 0.7610000372 -0.9155000448
63.35400009 0.8119999766 -0.9219999909
63.34600067 0.8730000257 -0.9219999909
63.36199951 0.8535000086 -0.9275000095
8.19699955 -5.775666714 -0.8676666617
8.203499794 -5.770999908 -0.8612499833
8.19699955 -5.732666492 -0.8816666603
8.200799942 -5.71900034 -0.8878000379
8.194199562 -5.672800541 -0.8669999838
8.206999779 -5.697000027 -0.8740000129
8.194333076 -5.634000301 -0.8753333092
8.188874245 -5.582999706 -0.8680000305
8.189666748 -5.525000095 -0.8722221851
8.186999321 -5.476200104 -0.8737999797
8.18599987 -5.424857616 -0.8815714121
8.186200142 -5.359200001 -0.8708000183
8.182333946 -5.314000607 -0.8583332896
8.186499596 -5.25816679 -0.8686666489
8.184199333 -5.222000122 -0.8786000013
8.190999985 -5.153999805 -0.8970000148
8.188334465 -5.132667065 -0.8743333817
8.177666664 -5.0746665 -0.8626666665
8.187399864 -5.026599884 -0.8873999715
8.215999603 -5.02699995 -0.8700000048
8.270000458 -5.046000004 -0.8740000129
8.193332672 -4.978332996 -0.8786666989
8.204000473 -4.991000175 -0.8560000062
8.19299984 -4.946000099 -0.8960000277
8.192500114 -4.867500305 -0.8754999638
8.206000328 -4.874500275 -0.8799999952
8.187000275 -4.847499847 -0.8824999928
8.206999779 -4.830999851 -0.8550000191
8.171999931 -4.789000034 -0.8774999976
8.165166855 -4.723499775 -0.877333343
8.16433239 -4.667166233 -0.8725000024
8.167750359 -4.612999916 -0.886500001
8.173000336 -4.596000195 -0.8829999566
8.167999268 -4.545499802 -0.8539999723
8.167999268 -4.46600008 -0.8777999878
8.166999817 -4.432666779 -0.871999979
8.164333344 -4.389667034 -0.8819999695
8.161999702 -4.317800045 -0.879799962
8.164500237 -4.272999763 -0.8737499714
8.16119957 -4.218800545 -0.8770000339
8.154999733 -4.170666695 -0.875
8.163999557 -4.112999916 -0.8690000176
8.159600258 -4.075399876 -0.8792001009
8.159999847 -4.024000168 -0.878000021
8.160999298 -3.986500025 -0.8575000167
8.149000168 -3.910000086 -0.8889999986
8.156599998 -3.921999693 -0.8823999166
8.145999908 -3.86500001 -0.8809999824
8.152000427 -3.878999949 -0.8700000048
8.145999908 -3.82249999 -0.8774999976
8.136249542 -3.774250031 -0.8907500505
8.144666672 -3.71933341 -0.8703333735
8.141999245 -3.670333147 -0.8683333397
8.14260006 -3.619800091 -0.8826000094
8.142250061 -3.579999924 -0.8620000482
8.15633297 -3.558666945 -0.8783333302
8.144500732 -3.506000042 -0.8745000362
8.166500092 -3.53000021 -0.88349998
8.146000862 -3.475666761 -0.8770000339
8.154000282 -3.46999979 -0.8734999895
8.139500618 -3.421999931 -0.8745000362
8.157499313 -3.407999992 -0.8745000362
8.133000374 -3.361999989 -0.8569999933
8.152000427 -3.375 -0.851000011
8.137000084 -3.342999935 -0.8784999847
8.152000427 -3.320499897 -0.8740000129
8.142999649 -3.279000044 -0.8930000067
8.156749725 -3.276750088 -0.8702499866
8.148000717 -3.220499992 -0.8795000315
8.154000282 -3.230749846 -0.8727499843
8.154500008 -3.177749872 -0.8732500076
8.136000633 -3.126666784 -0.8849999905
8.152667046 -3.123666763 -0.8740000129
8.147000313 -3.095999956 -0.8920000196
8.153499603 -3.063000202 -0.8675000072
8.142000198 -3.00999999 -0.8820000291
8.151000023 -3.019666672 -0.8866667151
8.145999908 -2.973500013 -0.8815000057
8.152000427 -2.960000038 -0.851000011
8.148500443 -2.927999973 -0.8960000277
8.147000313 -2.862999916 -0.8840000033
8.155500412 -2.882500172 -0.8960000277
8.147000313 -2.825000048 -0.8740000129
8.159999847 -2.822000027 -0.8610000014
8.145999908 -2.779999971 -0.8999999762
8.152999878 -2.763000011 -0.8529999852
8.144000053 -2.710000038 -0.8920000196
8.156999588 -2.700999975 -0.8569999933
8.145999908 -2.661000013 -0.8539999723
8.156999588 -2.66899991 -0.8909999728
8.154000282 -2.638000011 -0.8610000014
8.147000313 -2.572000027 -0.8619999886
8.137999535 -2.503000021 -0.8960000277
8.156000137 -2.508999825 -0.8680000305
8.156000137 -2.450999975 -0.8650000095
8.137000084 -2.440999985 -0.8889999986
8.177000046 -2.394000053 -0.8759999871
8.181499481 -2.34100008 -0.8824999928
8.175999641 -2.292999983 -0.8659999967
8.687999725 -2.240999937 -0.8700000048
8.885000229 -2.224999905 -0.8889999986
8.93500042 -2.226000071 -0.8539999723
9.184000015 -2.220999956 -0.8784999847
9.350000381 -2.221999884 -0.8909999728
9.404999733 -2.213999987 -0.8740000129
9.449999809 -2.217999935 -0.8799999952
9.574999809 -2.213000059 -0.8820000291
9.664999962 -2.214999914 -0.8600000143
9.734499931 -2.217000008 -0.8745000362
9.793000221 -2.210999966 -0.8539999723
10.02200031 -2.211999893 -0.8759999871
10.19900036 -2.213999987 -0.878000021
10.22700024 -2.210000038 -0.8920000196
10.25500011 -2.20600009 -0.878000021
10.30700016 -2.207000017 -0.851000011
17.41600037 -2.219000101 -0.8849999905
17.46100044 -2.220999956 -0.878000021
17.69300079 -2.21600008 -0.8799999952
17.70825005 -2.213000059 -0.8727499843
10.30599976 -2.198999882 -0.8939999938
10.45249939 -2.195499897 -0.875
10.6135006 -2.196000099 -0.8704999685
10.69999981 -2.190000057 -0.8960000277
10.77766705 -2.193666697 -0.8699999452
10.80900002 -2.191999912 -0.8949999809
10.89799976 -2.194000006 -0.8830000162
10.97333431 -2.192666769 -0.8849999905
11.0340004 -2.184999943 -0.8880000114
11.06099987 -2.190999985 -0.8709999919
11.11999989 -2.191999912 -0.8709999919
11.16149998 -2.193000078 -0.8895000219
11.36999989 -2.193333387 -0.8926666379
11.43200016 -2.188999891 -0.8830000162
11.54599953 -2.194999933 -0.8759999871
11.55500031 -2.193000078 -0.8880000114
11.72599983 -2.190999985 -0.8999999762
11.76900005 -2.190999985 -0.8960000277
11.83099937 -2.192500114 -0.8889999986
11.90299988 -2.197000027 -0.8569999933
11.96700001 -2.190999985 -0.8899999857
12.09700012 -2.190999985 -0.8730000257
12.12800026 -2.187000036 -0.8690000176
12.18949986 -2.188000202 -0.8925000429
12.20400047 -2.191999912 -0.8539999723
12.26200008 -2.186000109 -0.871999979
12.36100006 -2.194000006 -0.875
12.41499996 -2.190000057 -0.8909999728
12.61400032 -2.180999994 -0.8860000372
12.66749954 -2.17750001 -0.8745000362
12.79100037 -2.175499916 -0.8925000429
12.81799984 -2.177000046 -0.8859999776
13.03149986 -2.176000118 -0.8580000401
13.0710001 -2.167999983 -0.8999999762
13.14000034 -2.16899991 -0.8590000272
13.22099972 -2.170000076 -0.8679999709
13.3039999 -2.173000097 -0.8830000162
13.52700043 -2.177999973 -0.851000011
13.58600044 -2.171999931 -0.8909999728
13.67850018 -2.175000191 -0.8569999933
13.90100002 -2.180000067 -0.8840000033
13.97649956 -2.160000086 -0.8740000129
14.05599976 -2.153000116 -0.8569999933
14.12899971 -2.154999971 -0.8730000257
14.36499977 -2.15899992 -0.871999979
15.46700001 -2.154000044 -0.8949999809
15.55349922 -2.152500153 -0.8645000458
15.67833328 -2.157000065 -0.8636667132
17.69599915 -2.167000055 -0.8590000272
14.09399986 -2.142999887 -0.8889999986
14.16699982 -2.150000095 -0.851000011
14.2159996 -2.150000095 -0.8920000196
14.42399979 -2.150000095 -0.8600000143
14.55900002 -2.135999918 -0.8650000095
14.68900013 -2.145999908 -0.8815000057
14.73200035 -2.137500048 -0.886500001
14.80300045 -2.130000114 -0.8539999723
15.68799973 -2.150000095 -0.8759999871
15.9715004 -2.132500172 -0.8640000224
16.03100014 -2.117000103 -0.851000011
16.4260006 -2.138000011 -0.8899999857
16.45400047 -2.145999908 -0.8730000257
17.7140007 -2.130000114 -0.8870000243
17.97850037 -2.124500036 -0.8675000072
18.19799995 -2.122999907 -0.8949999809
18.26600075 -2.121999979 -0.871999979
18.49099922 -2.128999949 -0.8629999757
18.74399948 -2.125 -0.898999989
18.76950073 -2.121999979 -0.8789999485
18.98450089 -2.118000031 -0.8775000572
19.00099945 -2.11500001 -0.8960000277
19.39299965 -2.112999916 -0.8550000191
19.59600067 -2.115999937 -0.8999999762
19.73999977 -2.114000082 -0.8859999776
19.7670002 -2.10800004 -0.8870000243
19.8220005 -2.104000092 -0.898999989
19.99099922 -2.111999989 -0.8560000062
20.09199905 -2.102999926 -0.8840000033
20.72299957 -2.105000019 -0.8769999743
20.88599968 -2.104000092 -0.8709999919
20.58200073 -2.09800005 -0.8880000114
20.82799911 -2.095999956 -0.8519999981
21.17300034 -2.092000008 -0.871999979
21.35499954 -2.089999914 -0.8980000019
21.94049835 -2.090000153 -0.8745000362
22.13199997 -2.092000008 -0.8519999981
22.51600075 -2.08100009 -0.8569999933
23.73999977 -2.078000069 -0.8650000095
28.83399963 -2.094000101 -0.8930000067
30.79100037 -2.051000118 -0.8569999933
27.57999992 -2.042000055 -0.871999979
28.80649948 -2.041500092 -0.878000021
28.86800003 -2.017999887 -0.871999979
30.79899979 -2.040999889 -0.8679999709
30.81400108 -2.03333354 -0.874333322
24.6760006 -1.978000045 -0.8740000129
24.79600143 -1.982500076 -0.86650002
29.24500084 -1.965000033 -0.8730000257
29.28750038 -1.989500046 -0.8574999571
30.87599945 -1.978000045 -0.8970000148
31.60400009 -1.970000029 -0.8909999728
31.65099907 -1.963999987 -0.851000011
31.7840004 -1.95599997 -0.8610000014
33.33100128 -1.98300004 -0.8669999838
31.8220005 -1.942000031 -0.8999999762
32.00400162 -1.934000015 -0.8970000148
32.32899857 -1.929999948 -0.8629999757
33.6570015 -1.909000039 -0.8629999757
33.72000122 -1.93900001 -0.8859999776
36.84199905 -1.942999959 -0.8939999938
36.99700165 -1.924000025 -0.8880000114
37.04499817 -1.904999971 -0.8759999871
37.63499832 -1.912999988 -0.8820000291
38.72999954 -1.914000034 -0.8519999981
40.06999969 -1.909000039 -0.8629999757
40.79800034 -1.906000018 -0.8579999804
42.38299942 -1.919999957 -0.8590000272
42.40950012 -1.91050005 -0.8869999647
33.64599991 -1.853999972 -0.8809999824
34.63100052 -1.863999963 -0.8619999886
40.11199951 -1.894999981 -0.8590000272
42.40399933 -1.891000032 -0.8629999757
44.41075134 -1.871000051 -0.8832499981
45.38299942 -1.851999998 -0.8740000129
45.05799866 -1.840000033 -0.875
45.59799957 -1.845999956 -0.8590000272
46.26300049 -1.825999975 -0.8939999938
47.08100128 -1.792000055 -0.8930000067
52.18099976 -1.761000037 -0.8709999919
55.39899826 -1.758999944 -0.8960000277
46.88199997 -1.743000031 -0.8880000114
56.79600143 -1.738999963 -0.8709999919
57.50999832 -1.712000012 -0.8590000272
57.87799835 -1.738999963 -0.8640000224
58.17599869 -1.718999982 -0.8650000095
62.60699844 -1.702999949 -0.8700000048
47.88199997 -1.690000057 -0.875
62.57799911 -1.661999941 -0.8870000243
62.67100143 -1.700000048 -0.8889999986
62.74599838 -1.651000023 -0.875
63.13999939 -1.56099999 -0.8679999709
63.15999985 -1.498999953 -0.8709999919
63.33599854 -1.47300005 -0.8889999986
63.38100052 -1.366999984 -0.8809999824
63.36599731 -1.325000048 -0.8644999862
63.36600113 -1.289000034 -0.8859999776
63.36199951 -1.178499937 -0.8647500277
63.36500168 -1.039999962 -0.8560000062
63.34349823 -0.9275000095 -0.8790000081
1.918499947 -0.8249999881 -0.8684999943
2.279999971 -0.8029999733 -0.8859999776
2.333800077 -0.806400001 -0.8763999939
1.541499972 -0.7670000196 -0.8692499995
1.566333294 -0.7656666636 -0.8783333302
1.879999995 -0.7944999933 -0.8824999928
2.249000072 -0.7749999762 -0.8679999709
2.277100086 -0.7770000696 -0.8662000895
1.71449995 -0.7080000043 -0.8884999752
1.824500084 -0.7044999599 -0.8869999647
1.864124894 -0.704374969 -0.8749999404
1.996999979 -0.7160000205 -0.8930000067
2.140000105 -0.7189999819 -0.8830000162
2.309999943 -0.7419999838 -0.8709999919
63.34000015 -0.7300000191 -0.875
63.35100174 -0.7110000253 -0.8949999809
1.552000046 -0.6650000215 -0.8619999886
1.665499926 -0.6684999466 -0.8790000081
1.789999962 -0.6629999876 -0.871999979
1.832374811 -0.6693750024 -0.8786250949
1.869499922 -0.699000001 -0.875
1.932000041 -0.6683333516 -0.8729999661
2.074666739 -0.6719999909 -0.8763332963
1.440000057 -0.6090000272 -0.8909999728
1.508999944 -0.6179999709 -0.8880000114
1.590999961 -0.6110000014 -0.8600000143
1.624333382 -0.6309999824 -0.8700000644
1.776599884 -0.625 -0.8686000109
1.80674994 -0.6290000677 -0.8725000024
1.910666823 -0.6256666183 -0.8816666603
2.036999941 -0.6169999838 -0.8560000062
2.052999973 -0.6370000243 -0.8700000048
2.287666798 -0.607111156 -0.8687777519
2.303250074 -0.6109999418 -0.8875000477
63.34899902 -0.6119999886 -0.8870000243
1.388000011 -0.5730000138 -0.8700000048
1.406999946 -0.5879999995 -0.8769999743
1.486999989 -0.5723333359 -0.8683333397
1.503999949 -0.5827500224 -0.8752499819
1.588000059 -0.5970000029 -0.8550000191
1.627999902 -0.5860000253 -0.8576666713
1.769999981 -0.5860000253 -0.8570000529
1.898000002 -0.5669999719 -0.8539999723
1.920285821 -0.5701428056 -0.8712857366
1.963090897 -0.5597273111 -0.8729091287
2.026000023 -0.576333344 -0.8776666522
2.218999863 -0.5705000162 -0.8839999437
2.279999971 -0.5989999771 -0.8619999886
1.466200113 -0.5254000425 -0.8734000325
1.504857063 -0.5238571763 -0.8788571954
1.638000011 -0.5213332772 -0.8703333735
1.666374922 -0.5098749995 -0.87924999
1.815000057 -0.5109999776 -0.8980000019
1.905250072 -0.5287500024 -0.8817499876
1.964400053 -0.5393999815 -0.8802000284
2.020999908 -0.5450000167 -0.8579999804
2.214250088 -0.5277500153 -0.8697500229
63.36399841 -0.5070000291 -0.8560000062
1.462749958 -0.4737499952 -0.8830000162
1.513714194 -0.4782857299 -0.8768571019
1.64199996 -0.4930000007 -0.8820000291
1.687000155 -0.476000011 -0.873272717
1.702000022 -0.451000005 -0.8909999728
1.810250044 -0.4792500138 -0.882250011
1.917999864 -0.4754999876 -0.875666678
2.220499992 -0.4769999981 -0.871999979
63.33399963 -0.4806666672 -0.8826666474
1.362833381 -0.413166672 -0.8718333244
1.452000022 -0.4210000038 -0.8550000191
1.518000007 -0.4499999881 -0.898999989
1.686333299 -0.4099999964 -0.8870000243
1.827800035 -0.4291999936 -0.861800015
1.880714297 -0.4194285274 -0.8657141924
1.924666524 -0.4182222188 -0.8805555701
1.958999991 -0.40200001 -0.898999989
2.138625145 -0.4428750277 -0.8721250296
2.158499956 -0.4317499697 -0.8777500391
2.23633337 -0.423333317 -0.8806666732
2.257999897 -0.4009999931 -0.8659999967
63.34199905 -0.4410000145 -0.8669999838
1.345999956 -0.3689999878 -0.898999989
1.374444485 -0.3772222102 -0.8775556087
1.569875002 -0.3618749976 -0.8744999766
1.699000001 -0.3919999897 -0.8859999776
1.715250015 -0.3684999943 -0.8819999695
1.885499954 -0.3697499931 -0.8832499981
1.913500071 -0.3937499821 -0.8662499785
1.974750042 -0.3742500246 -0.8784999847
2.086999893 -0.3519999981 -0.8859999776
2.155999899 -0.3630000055 -0.8999999762
2.274000168 -0.3844999969 -0.8535000086
2.361999989 -0.3799999952 -0.8669999838
1.394000053 -0.3379999995 -0.8859999776
1.416857004 -0.3215714395 -0.8764285445
1.590999961 -0.3490000069 -0.8859999776
1.614333153 -0.3318333328 -0.875
1.725499988 -0.3370000124 -0.8905000091
1.791000009 -0.3404999971 -0.8969999552
1.934400201 -0.3247999847 -0.8694000244
1.966666579 -0.3203333318 -0.8610000014
2.464999914 -0.3089999855 -0.8590000272
2.526000023 -0.3289999962 -0.8949999809
63.33399963 -0.3400000036 -0.8690000176
1.33099997 -0.2649999857 -0.8999999762
1.355999947 -0.2569999993 -0.8830000162
1.421999931 -0.274333328 -0.8916666508
1.937000036 -0.2980000079 -0.875
1.968999982 -0.2843333483 -0.877333343
2.042999983 -0.2890000045 -0.8539999723
2.473999977 -0.2879999876 -0.8840000033
2.519000053 -0.2809999883 -0.8840000033
63.36100006 -0.2969999909 -0.8519999981
1.324000001 -0.25 -0.8970000148
1.427000046 -0.201000005 -0.8529999852
1.488000035 -0.2140000015 -0.8790000081
1.998000026 -0.2339999974 -0.8679999709
1.435000062 -0.1775999963 -0.8823999166
1.46449995 -0.1844999939 -0.8899999857
1.98300004 -0.172999993 -0.8600000143
2.025000095 -0.1788000166 -0.8579999804
2.059000015 -0.1819999963 -0.8769999743
2.118000031 -0.1780000031 -0.8930000067
2.159500122 -0.1675000042 -0.8919999599
2.237999916 -0.1700000018 -0.8623332977
63.32099915 -0.1659999937 -0.8579999804
63.36899948 -0.1949999928 -0.8600000143
1.394999981 -0.1340000033 -0.8716666698
1.431666732 -0.1413333267 -0.8793333173
2.094666481 -0.1309999973 -0.8826666474
2.114000082 -0.1410000026 -0.8880000114
2.237999916 -0.1459999979 -0.8870000243
2.277500153 -0.1445000023 -0.869500041
1.34800005 -0.08100000024 -0.8700000048
1.367333412 -0.08733334392 -0.8866665959
63.33599854 -0.09899999946 -0.8820000291
63.32899857 -0.02033333294 -0.8786666393
63.34000015 0.01099999994 -0.8920000196
63.33233643 0.07333333045 -0.8759999871
63.35200119 0.09600000083 -0.8709999919
63.33466721 0.1816666722 -0.8706666827
63.34249878 0.226000011 -0.8830000162
63.3370018 0.2939999998 -0.8980000019
63.3484993 0.3379999995 -0.8709999919
1.284999967 0.3659999967 -0.8769999743
1.321624994 0.3672499955 -0.8771250844
1.376714349 0.3688571155 -0.8770713806
1.418866754 0.36893332 -0.8733998537
1.472000003 0.3701249361 -0.8772500157
1.528909206 0.3709090948 -0.8780908585
1.576125026 0.3713749945 -0.8802499771
1.625307798 0.3716154099 -0.8809999824
1.672076941 0.372230798 -0.8746154308
1.722545266 0.3724545538 -0.8772726655
1.776928544 0.3737142682 -0.8742856979
1.825600028 0.3737334013 -0.8786000013
1.877000093 0.3749230802 -0.8738461733
1.918636203 0.3742727339 -0.8763636947
1.967777729 0.3736666441 -0.8721110821
2.029000282 0.3746363521 -0.8739090562
2.071666718 0.375333339 -0.8729999661
2.121333361 0.3743333519 -0.8743333817
2.185714245 0.3764285445 -0.8827143312
2.22657156 0.3778571784 -0.8755714297
2.272000313 0.378454566 -0.8700909019
2.324333191 0.3786666393 -0.8743333817
2.368375063 0.3798749745 -0.8816250563
2.433399916 0.380400002 -0.8736000061
2.482000113 0.3804117143 -0.8747058511
2.516499996 0.3784999847 -0.8645000458
2.566999912 0.3799999952 -0.8945000172
3.786999941 0.3897500038 -0.8712499738
3.812000275 0.3887999952 -0.8788000345
3.91899991 0.3910000026 -0.8700000048
3.950000048 0.3930000067 -0.875
4.028999805 0.3939999938 -0.8880000114
4.079799652 0.3962000012 -0.8767999411
4.124000072 0.3980000019 -0.8550000191
4.210000038 0.3959999979 -0.8820000291
4.318500042 0.3960000277 -0.8752499819
4.378499985 0.398999989 -0.86650002
4.419500351 0.3960000277 -0.8774999976
4.460999966 0.398999989 -0.8730000257
4.539000034 0.3973333538 -0.8706666827
4.633999825 0.3970000148 -0.8619999886
4.676000118 0.3980000019 -0.8769999743
2.815999985 0.4050000012 -0.8709999919
2.854000092 0.4099999964 -0.8679999709
3.781266451 0.4270666242 -0.8743665814
3.812000036 0.4040000141 -0.8889999986
4.218999863 0.400000006 -0.8824999928
4.322332859 0.400000006 -0.8806666732
4.407000065 0.400000006 -0.8939999938
4.456999779 0.400000006 -0.8650000095
